# x y z r p longitude latitude
8.56000000e+05 1.24260000e+06 -3.07840000e+06 3.42830000e+06 2.85250000e+09 9.67573751e-01 -1.11506126e+00
6.63000000e+05 1.13740000e+06 -3.24280000e+06 3.49990000e+06 1.68930000e+09 1.04303900e+00 -1.18511080e+00
1.37500000e+06 1.12150000e+06 -2.90250000e+06 3.40190000e+06 3.09330000e+09 6.84202855e-01 -1.02208940e+00
-1.30200000e+06 1.03490000e+06 -2.78940000e+06 3.24760000e+06 7.28010000e+09 2.46999736e+00 -1.03313981e+00
8.60000000e+04 1.88600000e+06 -2.94490000e+06 3.49810000e+06 2.64900000e+08 1.52522874e+00 -1.00071486e+00
-3.11000000e+05 1.73920000e+06 -3.03200000e+06 3.50920000e+06 7.97770000e+08 1.74774398e+00 -1.04318982e+00
1.24000000e+05 1.19350000e+06 -3.14730000e+06 3.36830000e+06 4.43120000e+09 1.46727165e+00 -1.20653806e+00
3.04000000e+05 7.50900000e+05 -3.38360000e+06 3.47930000e+06 1.26050000e+09 1.18611805e+00 -1.33571099e+00
3.57000000e+05 1.42790000e+06 -3.07240000e+06 3.40680000e+06 3.48080000e+09 1.32580119e+00 -1.12401714e+00
1.02100000e+06 1.54850000e+06 -2.90050000e+06 3.44290000e+06 1.10960000e+09 9.87877792e-01 -1.00183012e+00
-9.84000000e+05 1.43500000e+06 -3.07820000e+06 3.53600000e+06 1.73600000e+09 2.17187008e+00 -1.05628168e+00
2.00000000e+05 9.06800000e+05 -3.16740000e+06 3.30070000e+06 4.07410000e+09 1.35371594e+00 -1.28562912e+00
3.93000000e+05 1.15960000e+06 -3.17020000e+06 3.39850000e+06 2.66970000e+09 1.24403522e+00 -1.20217027e+00
5.55000000e+05 1.60900000e+06 -3.00690000e+06 3.45520000e+06 2.92440000e+09 1.23864109e+00 -1.05571676e+00
5.00000000e+05 1.44880000e+06 -2.76560000e+06 3.16190000e+06 5.25830000e+09 1.23848162e+00 -1.06474215e+00
6.75000000e+05 1.96560000e+06 -2.82440000e+06 3.50670000e+06 1.43410000e+09 1.24000740e+00 -9.36399951e-01
-3.68000000e+05 1.91490000e+06 -2.64160000e+06 3.28340000e+06 6.99390000e+09 1.76065871e+00 -9.34886859e-01
2.88000000e+05 1.67300000e+06 -2.92970000e+06 3.38600000e+06 2.51480000e+09 1.40032134e+00 -1.04562732e+00
-4.11000000e+05 -1.88160000e+06 -2.20390000e+06 2.92690000e+06 1.00740000e+10 -1.78584969e+00 -8.52580472e-01
-3.23000000e+05 -2.44270000e+06 -2.38050000e+06 3.42610000e+06 1.91680000e+09 -1.70226436e+00 -7.68160333e-01
6.20000000e+04 -1.80450000e+06 -2.74390000e+06 3.28470000e+06 7.20240000e+09 -1.53645129e+00 -9.88783486e-01
2.29000000e+05 -2.03860000e+06 -2.67750000e+06 3.37310000e+06 3.73740000e+09 -1.45893328e+00 -9.16999375e-01
9.51000000e+05 -1.98740000e+06 -2.61620000e+06 3.42040000e+06 2.42120000e+09 -1.12448427e+00 -8.70857043e-01
-6.35000000e+05 -1.41390000e+06 -3.10320000e+06 3.46880000e+06 1.28780000e+09 -1.99291187e+00 -1.10754271e+00
-5.69000000e+05 -1.88490000e+06 -2.84420000e+06 3.45920000e+06 2.15900000e+09 -1.86397038e+00 -9.65288622e-01
-5.26000000e+05 -2.10530000e+06 -2.72010000e+06 3.47970000e+06 1.74640000e+09 -1.81562969e+00 -8.97395577e-01
-1.71000000e+05 -2.36430000e+06 -2.59550000e+06 3.51510000e+06 6.88440000e+08 -1.64299646e+00 -8.30673631e-01
4.20000000e+04 -1.50820000e+06 -2.72220000e+06 3.11240000e+06 5.90070000e+09 -1.54295576e+00 -1.06467313e+00
3.83000000e+05 -1.43010000e+06 -2.68270000e+06 3.06410000e+06 9.05520000e+09 -1.30912360e+00 -1.06652392e+00
6.67000000e+05 -1.92580000e+06 -2.66490000e+06 3.35490000e+06 4.84790000e+09 -1.23737726e+00 -9.17904998e-01
7.20000000e+04 -2.27390000e+06 -2.63230000e+06 3.47920000e+06 6.23640000e+08 -1.53914324e+00 -8.58070038e-01
4.17000000e+05 -1.83730000e+06 -2.75730000e+06 3.33950000e+06 4.75830000e+09 -1.34761380e+00 -9.71375539e-01
7.85000000e+05 -2.16870000e+06 -2.54930000e+06 3.43780000e+06 2.30130000e+09 -1.22349963e+00 -8.35377500e-01
-1.27900000e+06 -1.08840000e+06 -2.60780000e+06 3.10180000e+06 6.70470000e+09 -2.43653147e+00 -9.98644138e-01
-9.78000000e+05 -1.67970000e+06 -2.85350000e+06 3.45260000e+06 2.21650000e+09 -2.09805974e+00 -9.72823588e-01
-7.46000000e+05 -1.24120000e+06 -2.89480000e+06 3.23680000e+06 6.63580000e+09 -2.11197376e+00 -1.10695399e+00
-4.77000000e+05 -1.21250000e+06 -3.24550000e+06 3.49730000e+06 0.00000000e+00 -1.94560192e+00 -1.18901277e+00
-1.52000000e+05 -1.90540000e+06 -2.93890000e+06 3.50580000e+06 7.07870000e+08 -1.65040103e+00 -9.94151286e-01
-1.65000000e+05 -1.40220000e+06 -2.50360000e+06 2.87430000e+06 1.24750000e+10 -1.68792990e+00 -1.05729413e+00
-2.19000000e+05 -1.22030000e+06 -3.20330000e+06 3.43490000e+06 1.95750000e+09 -1.74837010e+00 -1.20148028e+00
7.10000000e+04 -1.08560000e+06 -2.98260000e+06 3.17480000e+06 6.21120000e+09 -1.50548772e+00 -1.22105317e+00
5.94000000e+05 -1.57880000e+06 -2.76940000e+06 3.24270000e+06 6.83620000e+09 -1.21094326e+00 -1.02370528e+00
1.75000000e+05 -1.49530000e+06 -3.12300000e+06 3.46700000e+06 1.56420000e+09 -1.45429293e+00 -1.12155945e+00
5.05000000e+05 -1.73240000e+06 -2.99910000e+06 3.50010000e+06 2.46430000e+08 -1.28715295e+00 -1.02915029e+00
7.49000000e+05 -1.79450000e+06 -2.88470000e+06 3.47890000e+06 1.32170000e+09 -1.17539205e+00 -9.77672916e-01
-1.57200000e+06 -1.07230000e+06 -2.56880000e+06 3.19690000e+06 6.60490000e+09 -2.54296456e+00 -9.33199187e-01
-1.60300000e+06 -8.35000000e+05 -2.98790000e+06 3.49210000e+06 5.70690000e+08 -2.66136651e+00 -1.02674162e+00
-1.05400000e+06 -1.23830000e+06 -2.82850000e+06 3.26270000e+06 8.61510000e+09 -2.27596746e+00 -1.04898960e+00
-1.02100000e+06 -1.15750000e+06 -3.11690000e+06 3.47810000e+06 1.43080000e+09 -2.29361850e+00 -1.11101645e+00
3.50000000e+04 -1.69360000e+06 -3.02420000e+06 3.46630000e+06 1.38280000e+09 -1.55013323e+00 -1.06020905e+00
-6.20000000e+04 -1.37350000e+06 -2.96090000e+06 3.26460000e+06 6.19120000e+09 -1.61590586e+00 -1.13603776e+00
4.30000000e+04 -1.00710000e+06 -2.48190000e+06 2.67880000e+06 1.16890000e+10 -1.52812539e+00 -1.18499433e+00
5.60000000e+04 -1.23780000e+06 -3.21010000e+06 3.44100000e+06 2.75670000e+09 -1.52558560e+00 -1.20237599e+00
-1.40000000e+04 -1.22270000e+06 -2.70490000e+06 2.96850000e+06 1.21020000e+10 -1.58224590e+00 -1.14618991e+00
6.96000000e+05 -1.30750000e+06 -2.74440000e+06 3.11860000e+06 9.00560000e+09 -1.08163327e+00 -1.07588380e+00
1.15300000e+06 -1.29560000e+06 -2.74820000e+06 3.24970000e+06 6.36990000e+09 -8.43569818e-01 -1.00783440e+00
1.31400000e+06 -1.36030000e+06 -2.95860000e+06 3.51150000e+06 4.84320000e+08 -8.02709376e-01 -1.00199260e+00
1.89000000e+06 -1.33120000e+06 -2.15610000e+06 3.16120000e+06 5.69890000e+09 -6.13631862e-01 -7.50563721e-01
-1.62300000e+06 -1.25720000e+06 -2.77210000e+06 3.44960000e+06 2.07790000e+09 -2.48252322e+00 -9.33320150e-01
-1.15400000e+06 -9.65000000e+05 -2.83700000e+06 3.21120000e+06 8.02250000e+09 -2.44515211e+00 -1.08321881e+00
-9.65000000e+05 -8.15200000e+05 -2.67800000e+06 2.96100000e+06 8.00090000e+09 -2.44014457e+00 -1.13002811e+00
-6.71000000e+05 -9.61400000e+05 -2.76560000e+06 3.00390000e+06 1.10960000e+10 -2.18013874e+00 -1.16979295e+00
-2.10000000e+05 -1.12480000e+06 -2.93490000e+06 3.15010000e+06 5.84210000e+09 -1.75537120e+00 -1.19902325e+00
1.19000000e+05 -7.50600000e+05 -2.59820000e+06 2.70710000e+06 1.30010000e+10 -1.41356511e+00 -1.28619067e+00
3.46000000e+05 -1.05070000e+06 -3.02010000e+06 3.21630000e+06 7.91970000e+09 -1.25267630e+00 -1.21970584e+00
7.40000000e+05 -1.04640000e+06 -2.64040000e+06 2.93500000e+06 1.02160000e+10 -9.55263445e-01 -1.11891046e+00
9.22000000e+05 -1.14500000e+06 -2.83020000e+06 3.18930000e+06 5.56350000e+09 -8.92868314e-01 -1.09168460e+00
1.64100000e+06 -7.34400000e+05 -2.93710000e+06 3.44370000e+06 1.81260000e+09 -4.20799635e-01 -1.02149746e+00
1.76300000e+06 -1.42410000e+06 -2.62260000e+06 3.46620000e+06 2.37210000e+09 -6.79461334e-01 -8.58129852e-01
1.64700000e+06 -1.27630000e+06 -2.77910000e+06 3.47350000e+06 1.29990000e+09 -6.59262650e-01 -9.27439179e-01
-1.71000000e+06 -1.47230000e+06 -2.66700000e+06 3.49350000e+06 8.03820000e+08 -2.43075044e+00 -8.68588148e-01
-1.56500000e+06 -7.71400000e+05 -2.64440000e+06 3.16820000e+06 6.01580000e+09 -2.68363525e+00 -9.87532474e-01
-1.14200000e+06 -6.89000000e+05 -2.92420000e+06 3.21400000e+06 6.43810000e+09 -2.59873006e+00 -1.14287900e+00
-8.61000000e+05 -7.26100000e+05 -2.96870000e+06 3.17520000e+06 7.46620000e+09 -2.44098848e+00 -1.20815962e+00
-9.15000000e+05 -7.54300000e+05 -2.33290000e+06 2.61700000e+06 1.40360000e+10 -2.45216664e+00 -1.10051442e+00
-4.66000000e+05 -7.91100000e+05 -2.63760000e+06 2.79290000e+06 1.47350000e+10 -2.10312784e+00 -1.23574890e+00
-2.05000000e+05 -8.88500000e+05 -2.52510000e+06 2.68470000e+06 1.67050000e+10 -1.79755408e+00 -1.22425192e+00
5.60000000e+04 -6.53000000e+05 -2.87070000e+06 2.94460000e+06 9.95580000e+09 -1.48524760e+00 -1.34628588e+00
6.75000000e+05 -7.54600000e+05 -2.79860000e+06 2.97610000e+06 9.74780000e+09 -8.41020640e-01 -1.22368169e+00
8.96000000e+05 -8.79500000e+05 -2.94600000e+06 3.20240000e+06 6.90820000e+09 -7.76105274e-01 -1.16791479e+00
1.39500000e+06 -8.59700000e+05 -2.70280000e+06 3.16080000e+06 6.82090000e+09 -5.52298658e-01 -1.02574364e+00
1.34500000e+06 -6.44500000e+05 -3.11500000e+06 3.45370000e+06 1.18460000e+09 -4.46855066e-01 -1.12422060e+00
1.88800000e+06 -1.13060000e+06 -2.62680000e+06 3.42680000e+06 1.52440000e+09 -5.39562255e-01 -8.73445349e-01
-1.76700000e+06 -6.87000000e+05 -2.84130000e+06 3.41580000e+06 4.01570000e+09 -2.77078330e+00 -9.82362461e-01
-1.27400000e+06 -7.78400000e+05 -2.67150000e+06 3.06040000e+06 8.25710000e+09 -2.59313216e+00 -1.06116640e+00
-1.00900000e+06 -2.72000000e+05 -2.78990000e+06 2.97920000e+06 1.04800000e+10 -2.87827807e+00 -1.21239686e+00
-8.20000000e+05 -5.60300000e+05 -2.51840000e+06 2.70720000e+06 1.38150000e+10 -2.54216788e+00 -1.19512098e+00
-4.44000000e+05 -5.78200000e+05 -2.81990000e+06 2.91260000e+06 1.10460000e+10 -2.22565560e+00 -1.31782396e+00
-3.80000000e+05 -4.12800000e+05 -3.11300000e+06 3.16320000e+06 6.26380000e+09 -2.31484572e+00 -1.39240261e+00
-1.88000000e+05 -4.72700000e+05 -2.89750000e+06 2.94190000e+06 1.11690000e+10 -1.94933154e+00 -1.39683999e+00
3.41000000e+05 -3.04100000e+05 -2.97640000e+06 3.01130000e+06 8.66860000e+09 -7.28259992e-01 -1.41840121e+00
7.30000000e+04 -3.84400000e+05 -2.92670000e+06 2.95280000e+06 1.06400000e+10 -1.38312477e+00 -1.43773904e+00
6.11000000e+05 -5.15500000e+05 -2.90150000e+06 3.00960000e+06 9.40790000e+09 -7.00824531e-01 -1.30196367e+00
9.03000000e+05 -5.76100000e+05 -2.96780000e+06 3.15520000e+06 6.87740000e+09 -5.67882041e-01 -1.22441084e+00
3.10000000e+05 -4.54100000e+05 -3.41760000e+06 3.46160000e+06 1.58850000e+09 -9.71796840e-01 -1.41118490e+00
1.14000000e+06 -7.54000000e+05 -2.92350000e+06 3.22730000e+06 7.40850000e+09 -5.84350022e-01 -1.13341884e+00
1.61700000e+06 -5.04700000e+05 -2.66230000e+06 3.15550000e+06 7.68460000e+09 -3.02539743e-01 -1.00414159e+00
1.46600000e+06 -4.32100000e+05 -3.04730000e+06 3.40910000e+06 2.82650000e+09 -2.86631152e-01 -1.10590944e+00
-1.95800000e+06 -4.15800000e+05 -2.83160000e+06 3.46770000e+06 1.68670000e+09 -2.93234165e+00 -9.55433909e-01
-1.74100000e+06 -2.76300000e+05 -2.71450000e+06 3.23670000e+06 6.66490000e+09 -2.98420335e+00 -9.94823477e-01
-1.38900000e+06 -6.00400000e+05 -2.44390000e+06 2.87450000e+06 1.17130000e+10 -2.73359437e+00 -1.01636514e+00
-1.19900000e+06 -4.06200000e+05 -2.96190000e+06 3.22110000e+06 5.52780000e+09 -2.81494606e+00 -1.16688445e+00
-9.14000000e+05 -4.59400000e+05 -3.02730000e+06 3.19550000e+06 6.90120000e+09 -2.67584660e+00 -1.24489794e+00
-7.32000000e+05 -4.02700000e+05 -2.80200000e+06 2.92390000e+06 9.75620000e+09 -2.63864456e+00 -1.28102454e+00
-3.62000000e+05 -2.70800000e+05 -2.41440000e+06 2.45640000e+06 1.69410000e+10 -2.49933026e+00 -1.38560918e+00
-2.82000000e+05 -3.67400000e+05 -2.65240000e+06 2.69260000e+06 1.46910000e+10 -2.22543880e+00 -1.39778126e+00
-2.80000000e+04 -2.53100000e+05 -2.69960000e+06 2.71160000e+06 1.51530000e+10 -1.68097651e+00 -1.47668257e+00
2.21000000e+05 -4.61100000e+05 -2.68270000e+06 2.73100000e+06 1.28220000e+10 -1.12385465e+00 -1.38244449e+00
3.83000000e+05 -1.84100000e+05 -2.51620000e+06 2.55190000e+06 1.64800000e+10 -4.48071561e-01 -1.40333101e+00
4.73000000e+05 -3.52700000e+05 -2.72210000e+06 2.78530000e+06 1.30120000e+10 -6.40721549e-01 -1.35736302e+00
6.69000000e+05 -1.64700000e+05 -2.59550000e+06 2.68540000e+06 1.28820000e+10 -2.41388014e-01 -1.31131301e+00
1.01700000e+06 -3.25200000e+05 -2.69280000e+06 2.89680000e+06 1.21380000e+10 -3.09488862e-01 -1.19326494e+00
1.18000000e+06 -4.75000000e+05 -2.89720000e+06 3.16420000e+06 6.99420000e+09 -3.82696155e-01 -1.15704356e+00
1.24700000e+06 -2.02000000e+05 -2.85870000e+06 3.12540000e+06 7.04650000e+09 -1.60593790e-01 -1.15468313e+00
1.53000000e+06 -2.82100000e+05 -2.81740000e+06 3.21840000e+06 6.32660000e+09 -1.82331332e-01 -1.06627080e+00
2.28800000e+06 -7.87300000e+05 -2.52550000e+06 3.49760000e+06 2.20730000e+09 -3.31408743e-01 -8.06784801e-01
-1.55000000e+06 -4.80600000e+05 -2.65710000e+06 3.11350000e+06 7.68690000e+09 -2.84092812e+00 -1.02249767e+00
-1.28300000e+06 -2.03100000e+05 -2.69740000e+06 2.99390000e+06 1.06450000e+10 -2.98459456e+00 -1.12198914e+00
-7.58000000e+05 -1.22300000e+05 -2.81480000e+06 2.91770000e+06 1.05240000e+10 -2.98162561e+00 -1.30442524e+00
-5.71000000e+05 1.16700000e+05 -2.59870000e+06 2.66330000e+06 1.42120000e+10 2.93999077e+00 -1.35009600e+00
-5.61000000e+05 -1.80600000e+05 -2.60890000e+06 2.67470000e+06 1.36110000e+10 -2.83014437e+00 -1.34852431e+00
-5.05000000e+05 -1.23000000e+04 -2.85190000e+06 2.89630000e+06 1.12310000e+10 -3.11724103e+00 -1.39547244e+00
-2.17000000e+05 -1.94700000e+05 -2.92330000e+06 2.93780000e+06 1.08950000e+10 -2.41030727e+00 -1.47140084e+00
1.41000000e+05 -2.10000000e+04 -2.54430000e+06 2.54830000e+06 1.54680000e+10 -1.47849365e-01 -1.51475911e+00
5.00000000e+05 -7.46000000e+04 -2.80940000e+06 2.85460000e+06 1.43330000e+10 -1.48107460e-01 -1.39260510e+00
9.27000000e+05 -7.48000000e+04 -2.76810000e+06 2.92020000e+06 1.18180000e+10 -8.05159566e-02 -1.24662350e+00
1.43200000e+06 7.07000000e+04 -2.88270000e+06 3.21960000e+06 4.92320000e+09 4.93314518e-02 -1.10923818e+00
1.92900000e+06 -5.79000000e+04 -2.87310000e+06 3.46110000e+06 1.01160000e+09 -3.00065430e-02 -9.79308183e-01
1.72600000e+06 -2.10300000e+05 -3.00390000e+06 3.47090000e+06 1.26260000e+09 -1.21244784e-01 -1.04605341e+00
-1.79200000e+06 -1.48100000e+05 -2.95870000e+06 3.46230000e+06 1.93340000e+09 -3.05913496e+00 -1.02467908e+00
-1.56400000e+06 1.74800000e+05 -2.60460000e+06 3.04310000e+06 7.34800000e+09 3.03028985e+00 -1.02729548e+00
-1.51800000e+06 -3.81000000e+04 -2.85540000e+06 3.23410000e+06 5.24890000e+09 -3.11649911e+00 -1.08201140e+00
-1.29500000e+06 8.22000000e+04 -2.71260000e+06 3.00700000e+06 8.48360000e+09 3.07820279e+00 -1.12460014e+00
-1.05400000e+06 2.17200000e+05 -2.65130000e+06 2.86140000e+06 1.21330000e+10 2.93836541e+00 -1.18520025e+00
-8.17000000e+05 4.74100000e+05 -2.77880000e+06 2.93500000e+06 8.07570000e+09 2.61578908e+00 -1.24308110e+00
-3.18000000e+05 1.91100000e+05 -2.72820000e+06 2.75330000e+06 1.16930000e+10 2.60047977e+00 -1.43566514e+00
-2.88000000e+05 4.00600000e+05 -2.93140000e+06 2.97270000e+06 9.05210000e+09 2.19410881e+00 -1.40391084e+00
-4.90000000e+04 2.88000000e+05 -2.84700000e+06 2.86200000e+06 1.17600000e+10 1.73932147e+00 -1.46836904e+00
4.90000000e+05 2.18300000e+05 -2.91040000e+06 2.95950000e+06 8.51460000e+09 4.19113942e-01 -1.38838624e+00
7.03000000e+05 8.64000000e+04 -2.53930000e+06 2.63630000e+06 1.48230000e+10 1.22288592e-01 -1.29868655e+00
7.18000000e+05 7.34000000e+04 -2.83830000e+06 2.92870000e+06 1.08060000e+10 1.01874511e-01 -1.32168971e+00
1.20200000e+06 1.18600000e+05 -2.48740000e+06 2.76520000e+06 1.45460000e+10 9.83505441e-02 -1.11870872e+00
1.42700000e+06 -1.07800000e+05 -2.62930000e+06 2.99350000e+06 1.07880000e+10 -7.53998854e-02 -1.07237097e+00
1.66900000e+06 -7.90000000e+03 -2.76990000e+06 3.23390000e+06 5.44840000e+09 -4.73333793e-03 -1.02848875e+00
2.08100000e+06 -4.04300000e+05 -2.72060000e+06 3.44900000e+06 2.27880000e+09 -1.91891096e-01 -9.08867799e-01
-1.70200000e+06 6.60100000e+05 -2.74300000e+06 3.29500000e+06 5.22500000e+09 2.77161467e+00 -9.83557005e-01
-1.30800000e+06 3.00400000e+05 -2.52790000e+06 2.86210000e+06 9.77370000e+09 2.91584378e+00 -1.08271155e+00
-1.22800000e+06 1.65800000e+05 -2.98190000e+06 3.22910000e+06 6.17670000e+09 3.00738793e+00 -1.17696634e+00
-1.05600000e+06 5.06300000e+05 -2.64580000e+06 2.89340000e+06 1.23920000e+10 2.69451917e+00 -1.15408733e+00
-6.32000000e+05 6.59500000e+05 -2.72680000e+06 2.87580000e+06 1.17600000e+10 2.33490464e+00 -1.24748420e+00
-2.00000000e+03 4.95200000e+05 -3.06540000e+06 3.10520000e+06 6.07790000e+09 1.57483508e+00 -1.41051730e+00
-5.00000000e+04 8.16100000e+05 -3.02580000e+06 3.13440000e+06 6.87590000e+09 1.63198684e+00 -1.30678979e+00
1.14000000e+05 2.60700000e+05 -2.59790000e+06 2.61350000e+06 1.50160000e+10 1.15856700e+00 -1.46148069e+00
5.14000000e+05 2.92600000e+05 -2.45230000e+06 2.52260000e+06 2.17510000e+10 5.17510347e-01 -1.33415955e+00
9.68000000e+05 4.44400000e+05 -2.73140000e+06 2.93180000e+06 1.16780000e+10 4.30388159e-01 -1.19891695e+00
6.59000000e+05 3.13800000e+05 -2.70190000e+06 2.79880000e+06 1.26240000e+10 4.44407429e-01 -1.30688867e+00
9.64000000e+05 1.95200000e+05 -2.91090000e+06 3.07260000e+06 7.22050000e+09 1.99788281e-01 -1.24492942e+00
1.17400000e+06 3.44000000e+04 -2.74460000e+06 2.98540000e+06 9.82180000e+09 2.92931516e-02 -1.16640179e+00
1.44800000e+06 1.68300000e+05 -2.61170000e+06 2.99100000e+06 1.22830000e+10 1.15710094e-01 -1.06170189e+00
1.73200000e+06 5.02900000e+05 -2.90890000e+06 3.42270000e+06 2.36520000e+09 2.82587588e-01 -1.01576626e+00
1.99700000e+06 1.72400000e+05 -2.78460000e+06 3.43100000e+06 2.41090000e+09 8.61159832e-02 -9.46885853e-01
-1.77100000e+06 3.19600000e+05 -2.79840000e+06 3.32710000e+06 4.96020000e+09 2.96305127e+00 -9.99300511e-01
-1.78400000e+06 4.43500000e+05 -2.54430000e+06 3.13890000e+06 8.15690000e+09 2.89793334e+00 -9.45125746e-01
-1.25900000e+06 3.95100000e+05 -2.79970000e+06 3.09510000e+06 7.64080000e+09 2.83750523e+00 -1.13034379e+00
-1.17500000e+06 7.59700000e+05 -2.78360000e+06 3.11550000e+06 8.20610000e+09 2.56764431e+00 -1.10500880e+00
-6.29000000e+05 4.55600000e+05 -2.52830000e+06 2.64490000e+06 1.68720000e+10 2.51472749e+00 -1.27276070e+00
-1.85000000e+05 2.88400000e+05 -3.16510000e+06 3.18360000e+06 6.09780000e+09 2.14115180e+00 -1.46293838e+00
-3.75000000e+05 5.28000000e+05 -2.69840000e+06 2.77510000e+06 1.40590000e+10 2.18835330e+00 -1.33514020e+00
7.34000000e+05 6.10700000e+05 -2.73630000e+06 2.89810000e+06 1.25250000e+10 6.93960536e-01 -1.23506712e+00
6.91000000e+05 7.41800000e+05 -2.48850000e+06 2.68710000e+06 1.52870000e+10 8.20838371e-01 -1.18391787e+00
1.00200000e+06 4.55000000e+05 -3.03990000e+06 3.23300000e+06 5.89550000e+09 4.26251468e-01 -1.22342900e+00
1.23700000e+06 2.55400000e+05 -2.97090000e+06 3.22830000e+06 8.82880000e+09 2.03606274e-01 -1.16876391e+00
1.20900000e+06 3.28900000e+05 -2.70690000e+06 2.98280000e+06 1.12660000e+10 2.65615049e-01 -1.13730080e+00
1.23800000e+06 5.51600000e+05 -2.91200000e+06 3.21200000e+06 6.17100000e+09 4.19153280e-01 -1.13515655e+00
1.94100000e+06 7.01000000e+05 -2.70710000e+06 3.40400000e+06 2.66080000e+09 3.46576844e-01 -9.19453252e-01
-1.40600000e+06 6.40500000e+05 -2.86890000e+06 3.25850000e+06 6.60910000e+09 2.71413489e+00 -1.07678047e+00
-1.27100000e+06 6.93000000e+05 -3.14940000e+06 3.46620000e+06 1.70430000e+09 2.64241132e+00 -1.13992717e+00
-1.43200000e+06 8.27200000e+05 -2.64460000e+06 3.11910000e+06 7.05060000e+09 2.61776639e+00 -1.01196023e+00
-7.02000000e+05 9.40300000e+05 -2.70150000e+06 2.94540000e+06 1.12080000e+10 2.21209878e+00 -1.16097721e+00
-4.34000000e+05 8.72500000e+05 -2.69500000e+06 2.86580000e+06 1.24050000e+10 2.03237877e+00 -1.22380635e+00
-3.44000000e+05 7.21000000e+05 -2.90050000e+06 3.00850000e+06 1.15330000e+10 2.01596899e+00 -1.30203938e+00
-1.91000000e+05 1.16230000e+06 -2.98400000e+06 3.20810000e+06 7.25340000e+09 1.73367000e+00 -1.19480909e+00
8.50000000e+04 8.24200000e+05 -2.73970000e+06 2.86230000e+06 1.23130000e+10 1.46802933e+00 -1.27705494e+00
4.64000000e+05 7.87100000e+05 -2.79160000e+06 2.93740000e+06 1.11470000e+10 1.03812890e+00 -1.25440457e+00
7.03000000e+05 8.94600000e+05 -2.75950000e+06 2.98490000e+06 1.23310000e+10 9.04757979e-01 -1.17968659e+00
9.55000000e+05 8.76700000e+05 -2.65260000e+06 2.95250000e+06 9.52340000e+09 7.42676998e-01 -1.11616973e+00
1.20900000e+06 8.45700000e+05 -2.83140000e+06 3.19280000e+06 7.72750000e+09 6.10392814e-01 -1.09039130e+00
1.45900000e+06 6.67600000e+05 -2.75300000e+06 3.18650000e+06 6.68140000e+09 4.29134322e-01 -1.04307608e+00
1.51300000e+06 1.18260000e+06 -2.57490000e+06 3.21220000e+06 6.78680000e+09 6.63436383e-01 -9.29966895e-01
1.65900000e+06 1.00580000e+06 -2.78820000e+06 3.39680000e+06 3.25860000e+09 5.45016194e-01 -9.62865056e-01
-1.34200000e+06 8.99400000e+05 -3.03570000e+06 3.43880000e+06 1.77590000e+09 2.55115220e+00 -1.08174488e+00
-1.87000000e+06 5.55400000e+05 -2.90140000e+06 3.49620000e+06 6.30960000e+08 2.85288551e+00 -9.78879011e-01
-1.08600000e+06 4.01500000e+05 -3.18830000e+06 3.39210000e+06 3.48090000e+09 2.78747194e+00 -1.22239362e+00
-9.95000000e+05 9.96100000e+05 -2.77400000e+06 3.11090000e+06 7.63800000e+09 2.35564203e+00 -1.10109467e+00
-6.47000000e+05 1.31100000e+06 -2.85920000e+06 3.21130000e+06 7.12470000e+09 2.02924362e+00 -1.09812638e+00
-4.55000000e+05 1.08000000e+06 -2.90020000e+06 3.12810000e+06 5.75430000e+09 1.96952573e+00 -1.18671824e+00
-1.17000000e+05 1.30960000e+06 -3.22070000e+06 3.47880000e+06 1.36240000e+09 1.65990002e+00 -1.18316697e+00
4.71000000e+05 7.44400000e+05 -3.08590000e+06 3.20920000e+06 8.22970000e+09 1.00666170e+00 -1.29269790e+00
5.21000000e+05 1.10680000e+06 -2.70040000e+06 2.96460000e+06 1.03330000e+10 1.13084062e+00 -1.14541573e+00
1.41400000e+06 9.37900000e+05 -2.65860000e+06 3.15390000e+06 7.27170000e+09 5.85665166e-01 -1.00275503e+00
1.51400000e+06 1.50550000e+06 -2.68530000e+06 3.43070000e+06 2.37400000e+09 7.82583135e-01 -8.99034785e-01
2.15800000e+06 4.14400000e+05 -2.59160000e+06 3.39780000e+06 1.92970000e+09 1.89720155e-01 -8.67522174e-01
-1.56900000e+06 9.45300000e+05 -2.88150000e+06 3.41450000e+06 3.62880000e+09 2.59934747e+00 -1.00451341e+00
-9.04000000e+05 1.41890000e+06 -2.54200000e+06 3.04830000e+06 8.77550000e+09 2.13805892e+00 -9.86150167e-01
-1.13000000e+06 1.52680000e+06 -2.66440000e+06 3.27220000e+06 6.90350000e+09 2.20793775e+00 -9.51441934e-01
-7.32000000e+05 1.84680000e+06 -2.78070000e+06 3.41750000e+06 2.09290000e+09 1.94816194e+00 -9.50428979e-01
-2.47000000e+05 1.48550000e+06 -3.07010000e+06 3.41960000e+06 2.86020000e+09 1.73556291e+00 -1.11473717e+00
-2.29000000e+05 1.18220000e+06 -2.67510000e+06 2.93370000e+06 1.03340000e+10 1.76213333e+00 -1.14777288e+00
1.01000000e+05 1.46050000e+06 -3.10150000e+06 3.42970000e+06 1.97320000e+09 1.50175185e+00 -1.12975235e+00
8.29000000e+05 1.15950000e+06 -2.76190000e+06 3.10800000e+06 5.58490000e+09 9.50098282e-01 -1.09437591e+00
6.31000000e+05 1.39260000e+06 -3.14430000e+06 3.49630000e+06 2.31830000e+08 1.14535972e+00 -1.11821689e+00
1.15700000e+06 1.09960000e+06 -2.71370000e+06 3.14840000e+06 7.17780000e+09 7.59967150e-01 -1.03906369e+00
1.29000000e+06 1.40330000e+06 -2.90800000e+06 3.47710000e+06 6.83240000e+08 8.27440727e-01 -9.90552724e-01
1.22300000e+06 1.61600000e+06 -2.74760000e+06 3.41420000e+06 3.04920000e+09 9.22952997e-01 -9.35265325e-01
-1.68900000e+06 8.76600000e+05 -2.56950000e+06 3.19740000e+06 9.44750000e+09 2.66285664e+00 -9.33355897e-01
-9.95000000e+05 1.79980000e+06 -2.67020000e+06 3.37040000e+06 3.63260000e+09 2.07581674e+00 -9.14487849e-01
-1.11600000e+06 1.21710000e+06 -2.66580000e+06 3.13580000e+06 8.65870000e+09 2.31288868e+00 -1.01620932e+00
-4.90000000e+05 1.85210000e+06 -2.89860000e+06 3.47450000e+06 1.62700000e+09 1.82943513e+00 -9.86770326e-01
-3.58000000e+05 1.37990000e+06 -2.80240000e+06 3.14420000e+06 6.22090000e+09 1.82463892e+00 -1.10018642e+00
1.86000000e+05 1.47750000e+06 -2.77430000e+06 3.14870000e+06 8.32300000e+09 1.44556677e+00 -1.07816997e+00
7.47000000e+05 1.84670000e+06 -2.57040000e+06 3.25200000e+06 7.33100000e+09 1.18641209e+00 -9.11471325e-01
5.71000000e+05 1.22660000e+06 -2.92830000e+06 3.22580000e+06 8.53520000e+09 1.13511576e+00 -1.13794832e+00
1.07700000e+06 1.26000000e+06 -2.93130000e+06 3.36750000e+06 4.28840000e+09 8.63544219e-01 -1.05615171e+00
7.77000000e+05 1.42510000e+06 -2.86920000e+06 3.29650000e+06 6.13910000e+09 1.07162661e+00 -1.05596883e+00
9.78000000e+05 1.79150000e+06 -2.76730000e+06 3.43860000e+06 2.43040000e+09 1.07109769e+00 -9.35296650e-01
-1.27700000e+06 1.83320000e+06 -2.34060000e+06 3.23570000e+06 7.83270000e+09 2.17923415e+00 -8.08667003e-01
-9.58000000e+05 1.89050000e+06 -2.36550000e+06 3.17610000e+06 6.17600000e+09 2.03982477e+00 -8.40207100e-01
-5.29000000e+05 1.56940000e+06 -2.93040000e+06 3.36600000e+06 3.85560000e+09 1.89590744e+00 -1.05639663e+00
-4.45000000e+05 1.30690000e+06 -3.08940000e+06 3.38390000e+06 3.00980000e+09 1.89898333e+00 -1.15050532e+00
-2.59000000e+05 1.62970000e+06 -2.77920000e+06 3.23220000e+06 6.34730000e+09 1.72840320e+00 -1.03497145e+00
3.70000000e+04 1.69630000e+06 -2.66850000e+06 3.16230000e+06 7.11790000e+09 1.54898761e+00 -1.00441429e+00
4.26000000e+05 2.31610000e+06 -2.56740000e+06 3.48390000e+06 9.43630000e+08 1.38889946e+00 -8.28521480e-01
7.64000000e+05 1.71840000e+06 -2.89230000e+06 3.45000000e+06 2.59640000e+09 1.15244242e+00 -9.94245364e-01
1.16200000e+06 2.34620000e+06 -2.21450000e+06 3.42910000e+06 1.20550000e+09 1.11094072e+00 -7.02065735e-01
-8.81000000e+05 2.04380000e+06 -2.61000000e+06 3.43010000e+06 2.32570000e+09 1.97778845e+00 -8.64715602e-01
-2.66000000e+05 2.15500000e+06 -2.72870000e+06 3.48720000e+06 0.00000000e+00 1.69360899e+00 -8.98655183e-01
-3.81000000e+05 1.96890000e+06 -2.37160000e+06 3.10590000e+06 8.61390000e+09 1.76194288e+00 -8.68837786e-01
4.62000000e+05 1.88580000e+06 -2.91140000e+06 3.49940000e+06 3.36310000e+08 1.33053956e+00 -9.82651140e-01
5.03000000e+05 1.70910000e+06 -2.70190000e+06 3.23640000e+06 6.57980000e+09 1.28457067e+00 -9.87855445e-01
-9.35000000e+05 -2.51310000e+06 -2.23470000e+06 3.49050000e+06 1.85050000e+09 -1.92697859e+00 -6.94789127e-01
-7.77000000e+05 -2.07750000e+06 -2.59650000e+06 3.41490000e+06 3.98580000e+09 -1.92869633e+00 -8.63843147e-01
7.70000000e+04 -2.70440000e+06 -2.19450000e+06 3.48360000e+06 1.16620000e+09 -1.54233190e+00 -6.81491114e-01
1.26000000e+05 -2.42560000e+06 -2.37260000e+06 3.39540000e+06 3.14580000e+09 -1.51889706e+00 -7.73675097e-01
7.50000000e+04 -1.84480000e+06 -2.42580000e+06 3.04850000e+06 7.85840000e+09 -1.53016389e+00 -9.20221199e-01
5.88000000e+05 -2.35740000e+06 -2.49700000e+06 3.48400000e+06 1.94650000e+09 -1.32635671e+00 -7.99065832e-01
-2.38000000e+05 -2.16690000e+06 -2.74940000e+06 3.50880000e+06 8.07510000e+08 -1.68019216e+00 -9.00395558e-01
-7.39000000e+05 -1.60960000e+06 -2.95830000e+06 3.44800000e+06 2.48130000e+09 -2.00120874e+00 -1.03131579e+00
-1.02900000e+06 -2.08120000e+06 -2.48990000e+06 3.40440000e+06 1.21790000e+09 -2.02997504e+00 -8.20338972e-01
-8.31000000e+05 -1.90720000e+06 -2.79270000e+06 3.48240000e+06 1.27940000e+09 -1.98170948e+00 -9.30547162e-01
-1.05000000e+05 -2.00370000e+06 -2.21910000e+06 2.99170000e+06 9.53090000e+09 -1.62315149e+00 -8.35679165e-01
2.82000000e+05 -1.69610000e+06 -2.28360000e+06 2.85850000e+06 1.30050000e+10 -1.40603967e+00 -9.25431752e-01
-1.89000000e+05 -1.63580000e+06 -2.87650000e+06 3.31450000e+06 5.95510000e+09 -1.68582607e+00 -1.05086514e+00
5.67000000e+05 -2.10360000e+06 -2.36620000e+06 3.21650000e+06 4.41000000e+09 -1.30751521e+00 -8.26617422e-01
8.95000000e+05 -2.04000000e+06 -2.29940000e+06 3.20160000e+06 6.86920000e+09 -1.15735774e+00 -8.01216924e-01
1.22600000e+06 -1.86730000e+06 -2.61970000e+06 3.44280000e+06 2.49070000e+09 -9.89821259e-01 -8.64731911e-01
1.37200000e+06 -1.67230000e+06 -2.74420000e+06 3.49420000e+06 1.54640000e+09 -8.83723435e-01 -9.03275188e-01
-1.52800000e+06 -1.91810000e+06 -2.45300000e+06 3.46860000e+06 1.22320000e+09 -2.24347391e+00 -7.85532483e-01
-1.32900000e+06 -1.75800000e+06 -2.71360000e+06 3.49580000e+06 3.65760000e+08 -2.21810902e+00 -8.88688778e-01
-8.66000000e+05 -1.42610000e+06 -2.71640000e+06 3.18790000e+06 6.38820000e+09 -2.11653006e+00 -1.01997892e+00
-5.79000000e+05 -1.43550000e+06 -2.77060000e+06 3.17370000e+06 6.70520000e+09 -1.95418195e+00 -1.06129403e+00
-3.01000000e+05 -1.88690000e+06 -2.73070000e+06 3.33290000e+06 4.58250000e+09 -1.72898442e+00 -9.60217887e-01
-1.29000000e+05 -1.68520000e+06 -2.58200000e+06 3.08600000e+06 7.56780000e+09 -1.64719611e+00 -9.91196320e-01
2.44000000e+05 -1.66770000e+06 -2.58190000e+06 3.08340000e+06 6.95260000e+09 -1.42551782e+00 -9.92426419e-01
5.24000000e+05 -1.69010000e+06 -2.51050000e+06 3.07140000e+06 8.15200000e+09 -1.27015341e+00 -9.56847878e-01
4.94000000e+05 -2.12730000e+06 -2.65300000e+06 3.43630000e+06 1.46540000e+09 -1.34262122e+00 -8.82062455e-01
7.28000000e+05 -1.84850000e+06 -2.39860000e+06 3.11450000e+06 7.57300000e+09 -1.19561775e+00 -8.79060083e-01
1.02200000e+06 -1.79430000e+06 -2.42170000e+06 3.18260000e+06 7.02300000e+09 -1.05304376e+00 -8.64727908e-01
1.17000000e+06 -1.57390000e+06 -2.88420000e+06 3.48780000e+06 1.84390000e+09 -9.31547864e-01 -9.73642994e-01
1.41600000e+06 -1.40650000e+06 -2.69140000e+06 3.35070000e+06 4.28660000e+09 -7.82032366e-01 -9.32706675e-01
-1.18800000e+06 -1.38240000e+06 -3.02390000e+06 3.53080000e+06 2.54360000e+08 -2.28070795e+00 -1.02832372e+00
-1.24600000e+06 -1.61630000e+06 -2.49950000e+06 3.22690000e+06 7.54470000e+09 -2.22753761e+00 -8.86054589e-01
-9.59000000e+05 -1.09600000e+06 -2.62020000e+06 2.99780000e+06 8.10840000e+09 -2.28962633e+00 -1.06345837e+00
-7.14000000e+05 -1.20260000e+06 -2.59850000e+06 2.95100000e+06 9.77760000e+09 -2.10658067e+00 -1.07701922e+00
-2.69000000e+05 -1.40510000e+06 -2.75010000e+06 3.10000000e+06 7.85440000e+09 -1.75995299e+00 -1.09108683e+00
5.00000000e+04 -1.54690000e+06 -2.40230000e+06 2.85770000e+06 1.17990000e+10 -1.53848487e+00 -9.98465822e-01
-3.10000000e+04 -1.22280000e+06 -2.35080000e+06 2.65000000e+06 1.55170000e+10 -1.59614255e+00 -1.09101166e+00
1.70000000e+05 -1.33010000e+06 -2.53550000e+06 2.86830000e+06 1.30850000e+10 -1.44367559e+00 -1.08429300e+00
4.76000000e+05 -1.19600000e+06 -2.55320000e+06 2.85940000e+06 9.69450000e+09 -1.19202105e+00 -1.10377781e+00
6.45000000e+05 -1.42670000e+06 -2.49200000e+06 2.94310000e+06 1.04460000e+10 -1.14620385e+00 -1.00980148e+00
9.91000000e+05 -1.78880000e+06 -2.78240000e+06 3.45310000e+06 1.85620000e+09 -1.06488523e+00 -9.36972349e-01
1.11500000e+06 -1.59080000e+06 -2.60300000e+06 3.24800000e+06 5.46970000e+09 -9.59463101e-01 -9.29659373e-01
1.37700000e+06 -1.62120000e+06 -2.45300000e+06 3.24680000e+06 5.75490000e+09 -8.66667638e-01 -8.56436997e-01
2.18900000e+06 -1.66180000e+06 -2.16450000e+06 3.49840000e+06 9.55280000e+08 -6.49337420e-01 -6.67101419e-01
2.11400000e+06 -1.86120000e+06 -2.04460000e+06 3.48050000e+06 1.05420000e+09 -7.21889401e-01 -6.27897195e-01
-1.40500000e+06 -1.36360000e+06 -2.54370000e+06 3.21000000e+06 6.54990000e+09 -2.37114678e+00 -9.14782447e-01
-1.71300000e+06 -1.28150000e+06 -1.90260000e+06 2.86300000e+06 1.28960000e+10 -2.49930690e+00 -7.26888335e-01
-1.17800000e+06 -1.53340000e+06 -2.79030000e+06 3.39480000e+06 3.76430000e+09 -2.22586132e+00 -9.64797417e-01
-1.16300000e+06 -1.19490000e+06 -2.34600000e+06 2.87820000e+06 9.96040000e+09 -2.34266633e+00 -9.52889304e-01
-6.16000000e+05 -1.18200000e+06 -2.33500000e+06 2.68870000e+06 1.59550000e+10 -2.05122089e+00 -1.05206616e+00
-4.98000000e+05 -1.00540000e+06 -2.49110000e+06 2.73210000e+06 1.18670000e+10 -2.03069714e+00 -1.14762075e+00
-4.51000000e+05 -1.33940000e+06 -2.51480000e+06 2.88470000e+06 1.09170000e+10 -1.89558992e+00 -1.05880725e+00
-2.43000000e+05 -1.12540000e+06 -2.62300000e+06 2.86460000e+06 1.44070000e+10 -1.78345476e+00 -1.15714716e+00
3.33000000e+05 -8.83600000e+05 -2.49700000e+06 2.66960000e+06 1.40300000e+10 -1.21038952e+00 -1.20923628e+00
2.41000000e+05 -1.09730000e+06 -2.68480000e+06 2.91040000e+06 8.84610000e+09 -1.35459897e+00 -1.17446873e+00
2.08000000e+05 -1.31060000e+06 -2.88620000e+06 3.17670000e+06 5.78320000e+09 -1.41340308e+00 -1.13980704e+00
9.20000000e+05 -1.35770000e+06 -2.58580000e+06 3.06210000e+06 1.06310000e+10 -9.75251291e-01 -1.00554340e+00
1.33200000e+06 -1.13230000e+06 -2.57460000e+06 3.11210000e+06 7.09480000e+09 -7.04537648e-01 -9.74261146e-01
1.40700000e+06 -8.79100000e+05 -2.99410000e+06 3.42310000e+06 1.91620000e+09 -5.58458754e-01 -1.06476491e+00
1.69100000e+06 -1.53200000e+06 -2.34500000e+06 3.27200000e+06 6.54550000e+09 -7.36105207e-01 -7.99040171e-01
1.60800000e+06 -1.62740000e+06 -2.61110000e+06 3.47160000e+06 1.30340000e+09 -7.91394259e-01 -8.51290643e-01
2.06300000e+06 -1.31900000e+06 -1.93110000e+06 3.11850000e+06 1.00950000e+10 -5.68859140e-01 -6.67774454e-01
-2.12900000e+06 -1.48010000e+06 -2.20100000e+06 3.40120000e+06 2.10660000e+09 -2.53408936e+00 -7.03806709e-01
-2.08500000e+06 -1.26120000e+06 -2.39060000e+06 3.41360000e+06 2.62240000e+09 -2.59758379e+00 -7.75840616e-01
-1.45600000e+06 -9.79000000e+05 -2.82240000e+06 3.32330000e+06 4.92050000e+09 -2.54963813e+00 -1.01461304e+00
-1.11500000e+06 -9.35000000e+05 -2.44980000e+06 2.84940000e+06 1.12880000e+10 -2.44377476e+00 -1.03479944e+00
-8.74000000e+05 -1.07470000e+06 -2.34030000e+06 2.71960000e+06 1.43800000e+10 -2.25356461e+00 -1.03631109e+00
-7.61000000e+05 -8.91300000e+05 -2.51770000e+06 2.77710000e+06 1.39970000e+10 -2.27749758e+00 -1.13513987e+00
-1.40000000e+05 -9.54700000e+05 -2.23570000e+06 2.43510000e+06 1.54580000e+10 -1.71640147e+00 -1.16329574e+00
-3.70000000e+04 -5.17200000e+05 -2.61230000e+06 2.66330000e+06 1.62490000e+10 -1.64221371e+00 -1.37478304e+00
4.96000000e+05 -9.59300000e+05 -2.72100000e+06 2.92750000e+06 1.14860000e+10 -1.09360693e+00 -1.19295183e+00
5.75000000e+05 -9.95800000e+05 -2.38560000e+06 2.64830000e+06 1.54090000e+10 -1.04714137e+00 -1.12161821e+00
9.02000000e+05 -6.83800000e+05 -2.43470000e+06 2.68500000e+06 1.42400000e+10 -6.48660621e-01 -1.13557891e+00
1.04100000e+06 -1.34320000e+06 -3.01920000e+06 3.46460000e+06 1.27360000e+09 -9.11476956e-01 -1.05813576e+00
1.42000000e+06 -1.13210000e+06 -2.86270000e+06 3.39020000e+06 3.96520000e+09 -6.73064015e-01 -1.00545250e+00
1.65800000e+06 -9.81500000e+05 -2.86130000e+06 3.44960000e+06 1.61660000e+09 -5.34500303e-01 -9.78137521e-01
1.75100000e+06 -1.25150000e+06 -2.38500000e+06 3.21260000e+06 8.68740000e+09 -6.20546550e-01 -8.36629695e-01
2.00500000e+06 -1.36720000e+06 -2.48170000e+06 3.47110000e+06 1.30980000e+09 -5.98471510e-01 -7.96567860e-01
-2.18600000e+06 -5.21600000e+05 -2.47880000e+06 3.34590000e+06 4.99600000e+09 -2.90736302e+00 -8.34330522e-01
-1.78000000e+06 -8.90300000e+05 -2.50690000e+06 3.20090000e+06 6.36930000e+09 -2.67781022e+00 -8.99773314e-01
-1.79400000e+06 -1.13170000e+06 -2.35330000e+06 3.16820000e+06 6.98830000e+09 -2.57881556e+00 -8.37224488e-01
-1.39400000e+06 -8.71200000e+05 -2.43020000e+06 2.93400000e+06 1.01050000e+10 -2.58301913e+00 -9.76047085e-01
-9.86000000e+05 -5.41200000e+05 -2.74510000e+06 2.96660000e+06 1.14290000e+10 -2.63960637e+00 -1.18191925e+00
-1.10400000e+06 -6.39100000e+05 -2.48960000e+06 2.79740000e+06 1.47260000e+10 -2.61683616e+00 -1.09727775e+00
-7.30000000e+05 -5.76400000e+05 -2.19620000e+06 2.38510000e+06 1.76500000e+10 -2.47323217e+00 -1.17012656e+00
-5.96000000e+05 -6.78900000e+05 -2.41390000e+06 2.57740000e+06 1.67070000e+10 -2.29126120e+00 -1.21269497e+00
-3.10000000e+05 -5.93300000e+05 -2.49250000e+06 2.58090000e+06 1.46550000e+10 -2.05228248e+00 -1.30831222e+00
4.36000000e+05 -7.13600000e+05 -2.31060000e+06 2.45730000e+06 1.70730000e+10 -1.02233762e+00 -1.22351166e+00
6.47000000e+05 -7.76000000e+05 -2.51900000e+06 2.71410000e+06 1.16240000e+10 -8.75804597e-01 -1.18932030e+00
9.20000000e+05 -8.54100000e+05 -2.66370000e+06 2.94470000e+06 1.08280000e+10 -7.48269639e-01 -1.13038015e+00
1.15700000e+06 -9.85800000e+05 -2.75860000e+06 3.14970000e+06 8.02760000e+09 -7.05672050e-01 -1.06715177e+00
1.65600000e+06 -7.82200000e+05 -2.63460000e+06 3.20870000e+06 6.03960000e+09 -4.41278228e-01 -9.63300820e-01
1.85200000e+06 -4.95100000e+05 -2.52270000e+06 3.16850000e+06 7.04120000e+09 -2.61224023e-01 -9.20957219e-01
1.72300000e+06 -4.84200000e+05 -2.95200000e+06 3.45220000e+06 1.88790000e+09 -2.73955664e-01 -1.02575697e+00
1.99800000e+06 -1.10430000e+06 -2.32780000e+06 3.26040000e+06 7.59060000e+09 -5.04915854e-01 -7.95139771e-01
-2.07000000e+06 -5.92000000e+05 -2.72340000e+06 3.47170000e+06 1.21610000e+09 -2.86303779e+00 -9.01820388e-01
-1.81600000e+06 -5.83100000e+05 -2.59180000e+06 3.21800000e+06 5.39330000e+09 -2.83090099e+00 -9.36361954e-01
-1.49300000e+06 -4.53700000e+05 -2.20760000e+06 2.70340000e+06 1.69770000e+10 -2.84657565e+00 -9.55498049e-01
-1.19200000e+06 -7.41200000e+05 -2.23900000e+06 2.64260000e+06 1.62650000e+10 -2.58528906e+00 -1.01082742e+00
-1.27100000e+06 -4.87500000e+05 -2.69500000e+06 3.01930000e+06 9.22920000e+09 -2.77534179e+00 -1.10305957e+00
-6.42000000e+05 -3.55500000e+05 -2.35850000e+06 2.47010000e+06 1.72640000e+10 -2.63588386e+00 -1.26905231e+00
-5.46000000e+05 -4.62400000e+05 -2.58810000e+06 2.68520000e+06 1.47190000e+10 -2.43890895e+00 -1.30105110e+00
-1.19000000e+05 -4.16700000e+05 -2.37010000e+06 2.40940000e+06 1.72390000e+10 -1.84896920e+00 -1.38993367e+00
4.19000000e+05 -6.77100000e+05 -2.65970000e+06 2.77640000e+06 1.08780000e+10 -1.01665663e+00 -1.27983016e+00
6.69000000e+05 -5.03400000e+05 -2.60040000e+06 2.73190000e+06 1.41880000e+10 -6.45077716e-01 -1.25926400e+00
8.99000000e+05 -5.74500000e+05 -2.71180000e+06 2.91420000e+06 1.23810000e+10 -5.68634251e-01 -1.19590379e+00
1.08600000e+06 -4.79600000e+05 -2.46710000e+06 2.73790000e+06 1.58390000e+10 -4.15863826e-01 -1.12228143e+00
1.15800000e+06 -6.69300000e+05 -2.66010000e+06 2.97750000e+06 1.02310000e+10 -5.24070401e-01 -1.10485822e+00
1.16000000e+06 -8.66800000e+05 -2.46650000e+06 2.86020000e+06 1.13320000e+10 -6.41733253e-01 -1.03989740e+00
1.50000000e+06 -3.65000000e+05 -2.44220000e+06 2.88920000e+06 1.30030000e+10 -2.38694378e-01 -1.00710000e+00
1.89200000e+06 -9.06400000e+05 -2.74040000e+06 3.45130000e+06 2.32110000e+09 -4.46763660e-01 -9.17393164e-01
2.27100000e+06 -3.53700000e+05 -2.53920000e+06 3.42490000e+06 3.27730000e+09 -1.54505074e-01 -8.35145126e-01
-2.01500000e+06 -1.29400000e+05 -2.76360000e+06 3.42270000e+06 3.10870000e+09 -3.07746235e+00 -9.39787460e-01
-1.66200000e+06 -3.82800000e+05 -2.42690000e+06 2.96630000e+06 9.98380000e+09 -2.91521570e+00 -9.58198947e-01
-1.38100000e+06 -3.11400000e+05 -2.44750000e+06 2.82750000e+06 1.19190000e+10 -2.91981304e+00 -1.04635867e+00
-1.21000000e+06 -4.71100000e+05 -2.26300000e+06 2.60910000e+06 1.70170000e+10 -2.77031058e+00 -1.04985063e+00
-8.21000000e+05 -2.76200000e+05 -2.55840000e+06 2.70110000e+06 1.25980000e+10 -2.81706757e+00 -1.24429313e+00
-6.34000000e+05 -7.04000000e+04 -2.36400000e+06 2.44860000e+06 1.71110000e+10 -3.03100468e+00 -1.30716339e+00
-7.47000000e+05 -2.51100000e+05 -2.12840000e+06 2.26960000e+06 2.34670000e+10 -2.81731412e+00 -1.21619905e+00
4.10000000e+04 -2.45100000e+05 -2.19700000e+06 2.21100000e+06 2.10250000e+10 -1.40505225e+00 -1.45820263e+00
1.41000000e+05 -3.17200000e+05 -2.46270000e+06 2.48710000e+06 1.53640000e+10 -1.15251350e+00 -1.43060570e+00
4.80000000e+04 -5.14100000e+05 -2.15970000e+06 2.22060000e+06 1.97820000e+10 -1.47769917e+00 -1.33605689e+00
4.15000000e+05 -4.93400000e+05 -2.46360000e+06 2.54660000e+06 1.93680000e+10 -8.71490421e-01 -1.31478431e+00
5.66000000e+05 -3.00200000e+05 -2.36540000e+06 2.45070000e+06 2.07960000e+10 -4.87661983e-01 -1.30618268e+00
1.25900000e+06 -3.53300000e+05 -2.31320000e+06 2.65720000e+06 1.64700000e+10 -2.73583109e-01 -1.05629945e+00
1.31200000e+06 -3.94600000e+05 -2.65030000e+06 2.98350000e+06 9.75810000e+09 -2.92155909e-01 -1.09367180e+00
1.97800000e+06 -2.63700000e+05 -2.43950000e+06 3.15170000e+06 5.16500000e+09 -1.32534975e-01 -8.85176445e-01
-1.71300000e+06 1.13300000e+05 -3.01360000e+06 3.46830000e+06 9.96970000e+08 3.07554758e+00 -1.05297227e+00
-1.77700000e+06 3.23000000e+04 -2.70810000e+06 3.23930000e+06 6.15350000e+09 3.12341795e+00 -9.89978085e-01
-1.54000000e+06 -1.32700000e+05 -2.58870000e+06 3.01510000e+06 1.04280000e+10 -3.05563615e+00 -1.03249051e+00
-1.18300000e+06 -1.83100000e+05 -2.31000000e+06 2.60180000e+06 1.71180000e+10 -2.98803511e+00 -1.09264454e+00
-9.05000000e+05 -1.37500000e+05 -2.32060000e+06 2.49460000e+06 1.43790000e+10 -2.99081209e+00 -1.19509179e+00
-3.75000000e+05 7.20000000e+03 -2.42940000e+06 2.45820000e+06 1.67560000e+10 3.12239501e+00 -1.41757206e+00
-2.99000000e+05 -8.64000000e+04 -2.67460000e+06 2.69270000e+06 1.39880000e+10 -2.86029186e+00 -1.45478407e+00
-9.80000000e+04 -1.54900000e+05 -2.46010000e+06 2.46700000e+06 1.72860000e+10 -2.13488946e+00 -1.49598691e+00
2.44000000e+05 -1.07900000e+05 -2.28730000e+06 2.30280000e+06 2.39310000e+10 -4.16359512e-01 -1.45470584e+00
4.18000000e+05 7.95000000e+04 -2.62070000e+06 2.65500000e+06 1.30620000e+10 1.87946659e-01 -1.40988061e+00
1.00300000e+06 -2.43500000e+05 -2.27160000e+06 2.49510000e+06 1.75680000e+10 -2.38164058e-01 -1.14430891e+00
1.17900000e+06 -1.76800000e+05 -2.52200000e+06 2.78960000e+06 1.31660000e+10 -1.48848472e-01 -1.12920397e+00
1.41000000e+06 -9.92000000e+04 -2.35620000e+06 2.74770000e+06 1.27440000e+10 -7.02388737e-02 -1.03042400e+00
1.68800000e+06 -2.15000000e+05 -2.54460000e+06 3.06120000e+06 9.70500000e+09 -1.26687522e-01 -9.81339308e-01
1.84800000e+06 -2.93600000e+05 -2.75790000e+06 3.33280000e+06 4.78850000e+09 -1.57557623e-01 -9.74644606e-01
-2.31200000e+06 -8.51000000e+04 -2.56410000e+06 3.45360000e+06 2.65900000e+09 -3.10480130e+00 -8.36709294e-01
-2.02400000e+06 5.44800000e+05 -2.69840000e+06 3.41690000e+06 3.12630000e+09 2.87865462e+00 -9.10355176e-01
-1.57200000e+06 9.83000000e+04 -2.34020000e+06 2.82090000e+06 1.41190000e+10 3.07914216e+00 -9.78379082e-01
-1.34300000e+06 1.20000000e+03 -2.44870000e+06 2.79280000e+06 1.28960000e+10 3.14069913e+00 -1.06914633e+00
-1.06900000e+06 -8.29000000e+04 -2.56850000e+06 2.78330000e+06 1.49510000e+10 -3.06419844e+00 -1.17535182e+00
-8.47000000e+05 1.55400000e+05 -2.30310000e+06 2.45890000e+06 1.86560000e+10 2.96013962e+00 -1.21290717e+00
-5.83000000e+05 2.20600000e+05 -2.33860000e+06 2.42030000e+06 1.63930000e+10 2.77985530e+00 -1.31022853e+00
-2.40000000e+05 2.10600000e+05 -2.29630000e+06 2.31840000e+06 2.52930000e+10 2.42134848e+00 -1.43261080e+00
-1.28000000e+05 1.21100000e+05 -2.53180000e+06 2.53800000e+06 1.66820000e+10 2.38388713e+00 -1.50088404e+00
2.67000000e+05 1.76700000e+05 -2.38180000e+06 2.40330000e+06 1.94390000e+10 5.84624238e-01 -1.43693518e+00
5.00000000e+05 2.10000000e+04 -2.34700000e+06 2.39980000e+06 1.70610000e+10 4.19753301e-02 -1.36063929e+00
7.40000000e+05 -9.33000000e+04 -2.29790000e+06 2.41590000e+06 1.74800000e+10 -1.25419302e-01 -1.25696213e+00
9.41000000e+05 -7.45000000e+04 -2.49320000e+06 2.66590000e+06 1.52490000e+10 -7.90062975e-02 -1.20887673e+00
1.16300000e+06 -2.17000000e+04 -2.24730000e+06 2.53050000e+06 1.69120000e+10 -1.86564766e-02 -1.09316309e+00
1.38000000e+06 1.94100000e+05 -2.30550000e+06 2.69400000e+06 1.37480000e+10 1.39735521e-01 -1.02707726e+00
1.62500000e+06 6.94000000e+04 -2.43140000e+06 2.92530000e+06 9.40710000e+09 4.26817552e-02 -9.81195353e-01
1.90100000e+06 2.58200000e+05 -2.48940000e+06 3.14290000e+06 8.57030000e+09 1.34997155e-01 -9.14194293e-01
1.87000000e+06 -5.40000000e+03 -2.56930000e+06 3.17780000e+06 8.08650000e+09 -2.88769251e-03 -9.41624806e-01
-2.24400000e+06 4.46400000e+05 -2.58440000e+06 3.45170000e+06 1.15080000e+09 2.94522569e+00 -8.46147888e-01
-2.02300000e+06 2.59700000e+05 -2.67760000e+06 3.36600000e+06 4.72130000e+09 3.01391725e+00 -9.19806294e-01
-2.01300000e+06 4.07600000e+05 -2.38690000e+06 3.14890000e+06 4.75950000e+09 2.94180992e+00 -8.60257797e-01
-1.54500000e+06 3.77200000e+05 -2.38630000e+06 2.86770000e+06 1.09820000e+10 2.90213458e+00 -9.82937933e-01
-1.09800000e+06 1.16000000e+05 -2.38550000e+06 2.62870000e+06 1.57540000e+10 3.03633646e+00 -1.13725264e+00
-1.08000000e+06 2.99200000e+05 -2.13210000e+06 2.40870000e+06 1.63410000e+10 2.87133361e+00 -1.08685125e+00
-8.26000000e+05 2.93900000e+05 -2.54550000e+06 2.69230000e+06 1.35130000e+10 2.79975028e+00 -1.23904728e+00
-3.85000000e+05 3.25900000e+05 -2.48770000e+06 2.53840000e+06 1.66670000e+10 2.43913782e+00 -1.37059615e+00
-1.49000000e+05 4.06800000e+05 -2.61830000e+06 2.65390000e+06 1.54240000e+10 1.92189438e+00 -1.40681878e+00
7.24000000e+05 2.41900000e+05 -2.28070000e+06 2.40510000e+06 2.04850000e+10 3.22454809e-01 -1.24776209e+00
9.39000000e+05 2.00900000e+05 -2.63080000e+06 2.80060000e+06 1.25080000e+10 2.10773303e-01 -1.22078881e+00
1.13100000e+06 3.92100000e+05 -2.43840000e+06 2.71640000e+06 9.36500000e+09 3.33717963e-01 -1.11442756e+00
1.37800000e+06 4.52500000e+05 -2.24870000e+06 2.67590000e+06 1.42340000e+10 3.17280945e-01 -9.97933729e-01
1.63300000e+06 3.48600000e+05 -2.38220000e+06 2.90920000e+06 9.11600000e+09 2.10315345e-01 -9.59405634e-01
1.70100000e+06 2.68400000e+05 -2.67380000e+06 3.18040000e+06 7.25770000e+09 1.56499233e-01 -9.98596534e-01
1.95200000e+06 4.40100000e+05 -2.75470000e+06 3.40480000e+06 2.58570000e+09 2.21753248e-01 -9.42557218e-01
-1.94200000e+06 1.13600000e+05 -2.91390000e+06 3.50360000e+06 6.11120000e+08 3.08316284e+00 -9.82139840e-01
-2.15600000e+06 6.94400000e+05 -2.46180000e+06 3.34530000e+06 4.96380000e+09 2.83000594e+00 -8.26992172e-01
-1.57600000e+06 6.45800000e+05 -2.44300000e+06 2.97810000e+06 1.00920000e+10 2.75269099e+00 -9.61973268e-01
-1.29800000e+06 5.91400000e+05 -2.55680000e+06 2.92780000e+06 1.00430000e+10 2.71407163e+00 -1.06190191e+00
-8.66000000e+05 5.82100000e+05 -2.43280000e+06 2.64720000e+06 1.75310000e+10 2.54978910e+00 -1.16555876e+00
-5.29000000e+05 5.13600000e+05 -2.28960000e+06 2.40540000e+06 1.76160000e+10 2.37096418e+00 -1.25924220e+00
-2.25000000e+05 5.17700000e+05 -2.35420000e+06 2.42100000e+06 1.76170000e+10 1.98078240e+00 -1.33534046e+00
4.30000000e+04 5.74100000e+05 -2.52700000e+06 2.59180000e+06 1.68370000e+10 1.49603608e+00 -1.34671236e+00
2.86000000e+05 6.64400000e+05 -2.62700000e+06 2.72480000e+06 1.64210000e+10 1.16430710e+00 -1.30206101e+00
2.76000000e+05 4.47200000e+05 -2.40630000e+06 2.46300000e+06 1.31040000e+10 1.01784485e+00 -1.35580992e+00
5.22000000e+05 5.56800000e+05 -2.57810000e+06 2.68870000e+06 1.72180000e+10 8.17645046e-01 -1.28297599e+00
7.97000000e+05 4.18000000e+05 -2.48500000e+06 2.64300000e+06 1.10390000e+10 4.83028880e-01 -1.22327409e+00
1.40200000e+06 4.28800000e+05 -2.52660000e+06 2.92120000e+06 1.11330000e+10 2.96813979e-01 -1.04498802e+00
1.66900000e+06 5.41100000e+05 -2.61530000e+06 3.14930000e+06 6.94080000e+09 3.13513687e-01 -9.79894339e-01
1.72400000e+06 7.61500000e+05 -2.85780000e+06 3.42330000e+06 2.59210000e+09 4.15934710e-01 -9.87784886e-01
-2.35400000e+06 8.96800000e+05 -2.42370000e+06 3.49570000e+06 1.19340000e+09 2.77759956e+00 -7.66110309e-01
-2.13200000e+06 9.87800000e+05 -2.54410000e+06 3.46320000e+06 1.92770000e+09 2.70771651e+00 -8.25091120e-01
-1.89500000e+06 7.02100000e+05 -2.46330000e+06 3.18620000e+06 6.79060000e+09 2.78677185e+00 -8.83738237e-01
-1.38300000e+06 8.06100000e+05 -2.36080000e+06 2.85240000e+06 1.22750000e+10 2.61386895e+00 -9.74914500e-01
-1.30100000e+06 5.14200000e+05 -2.28490000e+06 2.67920000e+06 1.35040000e+10 2.76520126e+00 -1.02137952e+00
-9.13000000e+05 7.45800000e+05 -2.64530000e+06 2.89610000e+06 1.25900000e+10 2.45665096e+00 -1.15156175e+00
-6.54000000e+05 7.55400000e+05 -2.45640000e+06 2.65190000e+06 1.72060000e+10 2.28437273e+00 -1.18441631e+00
-3.97000000e+05 6.77700000e+05 -2.48040000e+06 2.60180000e+06 2.00690000e+10 2.10071288e+00 -1.26411262e+00
-1.55000000e+05 7.38600000e+05 -2.59210000e+06 2.69980000e+06 1.39710000e+10 1.77765106e+00 -1.28738875e+00
-1.36000000e+05 7.56600000e+05 -2.31060000e+06 2.43520000e+06 1.54360000e+10 1.74864857e+00 -1.24952195e+00
-9.00000000e+03 3.41300000e+05 -2.36620000e+06 2.39070000e+06 2.15250000e+10 1.59715998e+00 -1.42750923e+00
